# .PCD v0.7 - Point Cloud Data file format
VERSION 0.7
FIELDS x y z rgb
SIZE 4 4 4 4
TYPE F F F F
COUNT 1 1 1 1
WIDTH 1002
HEIGHT 1
VIEWPOINT 0 0 0 1 0 0 0
POINTS 1002
DATA ascii
7.942663e-27 -4.4700422e-27 8.8470079e-26 0
7.8327532e-27 -4.4700422e-27 8.8470079e-26 0
7.7228427e-27 -4.4700422e-27 8.8470079e-26 0
7.6129322e-27 -4.4700422e-27 8.8470079e-26 0
1.8757556e-27 -1.1175105e-27 2.211752e-26 0
7.393112e-27 -4.4700422e-27 8.8470079e-26 0
7.2832014e-27 -4.4700422e-27 8.8470079e-26 0
7.1732909e-27 -4.4700422e-27 8.8470079e-26 0
7.0633812e-27 -4.4700422e-27 8.8470079e-26 0
6.9534707e-27 -4.4700422e-27 8.8470079e-26 0
6.8435602e-27 -4.4700422e-27 8.8470079e-26 0
6.7336497e-27 -4.4700422e-27 8.8470079e-26 0
6.6237399e-27 -4.4700422e-27 8.8470079e-26 0
1.6216295e-27 -1.112825e-27 2.2024785e-26 0
6.4038137e-27 -4.4699686e-27 8.8468624e-26 0
6.2940088e-27 -4.4700422e-27 8.8470079e-26 0
2.4840577e-26 -1.7955476e-26 3.5537077e-25 0
6.099872e-27 -4.4889429e-27 8.8844159e-26 0
5.964278e-27 -4.4700422e-27 8.8470079e-26 0
5.8543675e-27 -4.4700422e-27 8.8470079e-26 0
5.7444574e-27 -4.4700422e-27 8.8470079e-26 0
5.6345469e-27 -4.4700422e-27 8.8470079e-26 0
5.5246367e-27 -4.4700422e-27 8.8470079e-26 0
2.1658905e-26 -1.7880169e-26 3.5388032e-25 0
1.5267794e+11 -1.286523e+11 2.5462579e+12 0
3.7166875e+10 -3.1980849e+10 6.3295783e+11 0
9.0951311e+09 -7.9952123e+09 1.5823946e+11 0
8.8484106e+09 -7.9501686e+09 1.5734797e+11 0
8.65293e+09 -7.9501686e+09 1.5734797e+11 0
8.4574495e+09 -7.9501686e+09 1.5734797e+11 0
8.2619689e+09 -7.9501686e+09 1.5734797e+11 0
1.3053462e+11 -1.2865229e+11 2.5462576e+12 0
7.4922426e+10 -8.1458284e+09 1.5735143e+11 0
7.4725294e+10 -8.1456492e+09 1.5734797e+11 0
7.4529817e+10 -8.1456492e+09 1.5734797e+11 0
7.4334331e+10 -8.1456492e+09 1.5734797e+11 0
7.4138853e+10 -8.1456492e+09 1.5734797e+11 0
7.3943376e+10 -8.1456492e+09 1.5734797e+11 0
7.374789e+10 -8.1456492e+09 1.5734797e+11 0
7.3552413e+10 -8.1456492e+09 1.5734797e+11 0
17612506 -1955715.6 37778192 0
7.2688078e-19 -8.0929445e-20 1.5632989e-18 0
4.5107732e-20 -5.0356591e-21 9.7272879e-20 0
1.0792713e-23 -1.2080948e-24 2.3336541e-23 0
4.0979068e-26 -4.5993946e-27 8.8845638e-26 0
4.0695935e-26 -4.5799523e-27 8.8470079e-26 0
1.0104129e-26 -1.140206e-27 2.2025144e-26 0
1.00766e-26 -1.1401873e-27 2.2024784e-26 0
1.0049238e-26 -1.1401873e-27 2.2024784e-26 0
4.0256293e-26 -4.5799523e-27 8.8470079e-26 0
4.0146383e-26 -4.5799523e-27 8.8470079e-26 0
4.0036472e-26 -4.5799523e-27 8.8470079e-26 0
3.9926562e-26 -4.5799523e-27 8.8470079e-26 0
3.9816651e-26 -4.5799523e-27 8.8470079e-26 0
3.9706741e-26 -4.5799523e-27 8.8470079e-26 0
3.959683e-26 -4.5799523e-27 8.8470079e-26 0
3.9486923e-26 -4.5799523e-27 8.8470079e-26 0
3.9377012e-26 -4.5799523e-27 8.8470079e-26 0
3.9267102e-26 -4.5799523e-27 8.8470079e-26 0
9.7482531e-27 -1.1401874e-27 2.2024785e-26 0
3.9047277e-26 -4.5799519e-27 8.8470073e-26 0
3.893737e-26 -4.5799523e-27 8.8470079e-26 0
3.882746e-26 -4.5799523e-27 8.8470079e-26 0
3.8717549e-26 -4.5799523e-27 8.8470079e-26 0
3.8607638e-26 -4.5799523e-27 8.8470079e-26 0
3.8497728e-26 -4.5799523e-27 8.8470079e-26 0
3.8387817e-26 -4.5799523e-27 8.8470079e-26 0
3.8277907e-26 -4.5799523e-27 8.8470079e-26 0
3.8167996e-26 -4.5799523e-27 8.8470079e-26 0
3.8058086e-26 -4.5799523e-27 8.8470079e-26 0
3.7948175e-26 -4.5799523e-27 8.8470079e-26 0
1.5199302e-25 -1.839727e-26 3.5537661e-25 0
3.7887883e-26 -4.5993179e-27 8.8844159e-26 0
3.7618447e-26 -4.5799523e-27 8.8470079e-26 0
3.7508536e-26 -4.5799523e-27 8.8470079e-26 0
3.7398626e-26 -4.5799523e-27 8.8470079e-26 0
3.7288715e-26 -4.5799523e-27 8.8470079e-26 0
1.4871522e-25 -1.8319809e-26 3.5388032e-25 0
1.4890254e-25 -1.8397272e-26 3.5537664e-25 0
2.6442834e+11 -3.2767926e+10 6.3297185e+11 0
2.6363614e+11 -3.2767199e+10 6.3295783e+11 0
2.6284979e+11 -3.2767199e+10 6.3295783e+11 0
6.5146761e+10 -8.1456497e+09 1.5734799e+11 0
2.6127709e+11 -3.2767199e+10 6.3295783e+11 0
2.6049074e+11 -3.2767199e+10 6.3295783e+11 0
2.5970439e+11 -3.2767199e+10 6.3295783e+11 0
1.0415734e+12 -1.3181563e+11 2.5462579e+12 0
1.0384101e+12 -1.3181563e+11 2.5462579e+12 0
4.1646243e+12 -5.3027222e+11 1.0243169e+13 0
1.6607595e+13 -2.1210889e+12 4.0972675e+13 0
1.0844869e+15 -1.3893433e+14 2.6837683e+15 0
4.1506043e+12 -5.333765e+11 1.0303134e+13 0
2.5564835e+11 -3.2953907e+10 6.3656447e+11 0
1.5749119e+10 -2.0364124e+09 3.9336997e+10 0
6.2800986e+10 -8.1456481e+09 1.5734795e+11 0
3.8693317e+09 -5.034416e+08 9.724887e+09 0
931334.19 -121556.12 2348076.8 0
56469.191 -7393.4189 142817.28 0
865.65222 -113.69566 2196.2378 0
0.20316966 -0.026768887 0.51708961 0
0.20252322 -0.026768355 0.51707923 0
0.20188083 -0.026768355 0.51707923 0
0.05030961 -0.0066920887 0.12926981 0
0.00019295259 -2.5748379e-05 0.0004973766 0
2.93175e-06 -3.9248158e-07 7.5814928e-06 0
1.8087671e-07 -2.4292515e-08 4.6925393e-07 0
4.4856208e-08 -6.0438601e-09 1.167481e-07 0
4.4710326e-08 -6.0437459e-09 1.1674591e-07 0
4.4565287e-08 -6.0437459e-09 1.1674591e-07 0
4.4420247e-08 -6.0437459e-09 1.1674591e-07 0
4.4275208e-08 -6.0437459e-09 1.1674591e-07 0
4.4130172e-08 -6.0437459e-09 1.1674591e-07 0
1.767892e-07 -2.4291595e-08 4.6923617e-07 1.3634466e-38
2.244797e+08 -30946520 5.977881e+08 1.261995e-38
2.2497462e+08 -31117698 6.0109472e+08 1.3356796e-38
3446665 -478318.28 9239584 1.3725574e-38
854148.75 -118932.41 2297395 1.344971e-38
1.9748127e+10 -2.8350052e+09 5.4763262e+10 1.3357157e-38
5.6544375e+10 -8.14547e+09 1.5734451e+11 1.3080572e-38
2.2667759e+11 -3.2767197e+10 6.3295776e+11 1.3357153e-38
5.6155894e+10 -8.1458284e+09 1.5735143e+11 1.3357513e-38
5.5959179e+10 -8.1456492e+09 1.5734797e+11 1.31724e-38
5.5763698e+10 -8.1456492e+09 1.5734797e+11 1.3357153e-38
5.5568216e+10 -8.1456492e+09 1.5734797e+11 1.3356437e-38
5.5372739e+10 -8.1456492e+09 1.5734797e+11 1.3356438e-38
5.5177257e+10 -8.1456492e+09 1.5734797e+11 1.3080569e-38
5.4981775e+10 -8.1456492e+09 1.5734797e+11 1.3173485e-38
1.3620141e+10 -2.0250481e+09 3.9117472e+10 1.3356793e-38
201446.86 -30058.453 580633.5 1.3356796e-38
5.4043385e-19 -8.0929445e-20 1.5632989e-18 1.3080566e-38
3.3507051e-20 -5.0357455e-21 9.7274547e-20 1.3357516e-38
8.0094791e-24 -1.2080948e-24 2.3336541e-23 1.3448629e-38
3.0382386e-26 -4.5993187e-27 8.8844171e-26 1.3172763e-38
3.0144545e-26 -4.5799523e-27 8.8470079e-26 1.3172402e-38
7.4772982e-27 -1.140206e-27 2.2025144e-26 1.3264958e-38
7.4498136e-27 -1.1401873e-27 2.2024784e-26 1.3264599e-38
7.4224508e-27 -1.1401873e-27 2.2024784e-26 1.3449349e-38
2.9704416e-26 -4.5798772e-27 8.8468624e-26 1.3357153e-38
2.9594995e-26 -4.5799523e-27 8.8470079e-26 1.3264602e-38
2.9485085e-26 -4.5799523e-27 8.8470079e-26 1.3448271e-38
2.9375174e-26 -4.5799523e-27 8.8470079e-26 1.3448993e-38
2.9265264e-26 -4.5799523e-27 8.8470079e-26 1.3080933e-38
2.9155353e-26 -4.5799523e-27 8.8470079e-26 1.5114279e-38
2.9045443e-26 -4.5799523e-27 8.8470079e-26 2.0002101e-38
2.8935532e-26 -4.5799523e-27 8.8470079e-26 1.843333e-38
2.8825622e-26 -4.5799523e-27 8.8470079e-26 1.9170541e-38
2.8715711e-26 -4.5799523e-27 8.8470079e-26 1.8710643e-38
7.121582e-27 -1.140206e-27 2.2025144e-26 1.8248237e-38
2.849589e-26 -4.5799519e-27 8.8470073e-26 1.2346319e-38
2.8385979e-26 -4.5799523e-27 8.8470079e-26 0
2.8276069e-26 -4.5799523e-27 8.8470079e-26 1.7791579e-38
2.8166158e-26 -4.5799523e-27 8.8470079e-26 1.585117e-38
2.8056248e-26 -4.5799523e-27 8.8470079e-26 0
2.7946341e-26 -4.5799523e-27 8.8470079e-26 1.4288875e-38
2.783643e-26 -4.5799523e-27 8.8470079e-26 1.8526622e-38
2.7726519e-26 -4.5799523e-27 8.8470079e-26 1.271151e-38
6.8753164e-27 -1.140206e-27 2.2025144e-26 0
2.7506695e-26 -4.5799519e-27 8.8470073e-26 1.8438748e-38
2.7396788e-26 -4.5799523e-27 8.8470079e-26 1.953863e-38
1.0960721e-25 -1.8396968e-26 3.5537077e-25 1.1794586e-38
2.7291879e-26 -4.5993179e-27 8.8844159e-26 1.2626504e-38
2.7067056e-26 -4.5799523e-27 8.8470079e-26 1.7609344e-38
2.6957146e-26 -4.5799523e-27 8.8470079e-26 1.8712103e-38
2.6847235e-26 -4.5799523e-27 8.8470079e-26 1.2445339e-38
2.6737325e-26 -4.5799523e-27 8.8470079e-26 1.4659455e-38
2.6627414e-26 -4.5799523e-27 8.8470079e-26 2.0463091e-38
1.0651851e-25 -1.839727e-26 3.5537661e-25 1.9357091e-38
1.9000928e+11 -3.2953907e+10 6.3656447e+11 1.9814828e-38
1.8814638e+11 -3.2767199e+10 6.3295783e+11 2.0001739e-38
1.8736003e+11 -3.2767199e+10 6.3295783e+11 2.0370161e-38
4.6380642e+10 -8.1456492e+09 1.5734797e+11 2.0736783e-38
4.6185161e+10 -8.1456492e+09 1.5734797e+11 2.0274007e-38
1.8500097e+11 -3.2767197e+10 6.3295776e+11 1.9354213e-38
1.8421463e+11 -3.2767199e+10 6.3295783e+11 1.9538603e-38
7.3789374e+11 -1.3181562e+11 2.5462576e+12 1.9447486e-38
7.3473045e+11 -1.3181563e+11 2.5462579e+12 1.95386e-38
2.9429722e+12 -5.3027222e+11 1.0243169e+13 1.9446766e-38
1.178854e+13 -2.1333137e+12 4.1208819e+13 1.9262735e-38
7.6442459e+14 -1.3893752e+14 2.6838298e+15 1.9355652e-38
1.1754693e+13 -2.1458264e+12 4.1450524e+13 1.9538603e-38
7.1891386e+11 -1.3181565e+11 2.5462579e+12 1.9631876e-38
4.4230361e+10 -8.1456497e+09 1.5734799e+11 2.0185406e-38
7.1257122e+11 -1.3181269e+11 2.546201e+12 2.055203e-38
2.7095519e+09 -5.0345261e+08 9.725099e+09 2.0183608e-38
651290.69 -121556.12 2348076.8 1.9999218e-38
39436.082 -7393.4189 142817.28 1.9261656e-38
150.92946 -28.423916 549.05945 1.9354576e-38
0.14149894 -0.026768887 0.51708961 1.9077269e-38
0.14085373 -0.026768355 0.51707923 1.8617018e-38
0.14021133 -0.026768355 0.51707923 1.4653698e-38
0.034892235 -0.0066920887 0.12926981 1.7422072e-38
0.00013363293 -2.5748377e-05 0.00049737655 1.5205791e-38
2.0275431e-06 -3.9248161e-07 7.5814933e-06 1.7607175e-38
1.2491111e-07 -2.4292516e-08 4.6925396e-07 1.8431176e-38
3.0932238e-08 -6.0438601e-09 1.167481e-07 1.8340423e-38
3.0786616e-08 -6.0437459e-09 1.1674591e-07 1.7787606e-38
3.0641576e-08 -6.0437459e-09 1.1674591e-07 1.7972358e-38
3.049654e-08 -6.0437459e-09 1.1674591e-07 1.7695053e-38
3.0351501e-08 -6.0437459e-09 1.1674591e-07 1.6773459e-38
3.0206461e-08 -6.0437459e-09 1.1674591e-07 1.6312842e-38
1.2082572e-07 -2.4291595e-08 4.6923617e-07 1.6773817e-38
6.1611366e+08 -1.2446807e+08 2.4043264e+09 1.6496512e-38
6.1653696e+08 -1.2516038e+08 2.4176996e+09 1.6128448e-38
2357433.5 -480914.78 9289740 1.5944418e-38
580149.81 -118932.41 2297395 1.5760387e-38
1.3216783e+10 -2.8350052e+09 5.4763262e+10 1.2804338e-38
3.7779501e+10 -8.1456481e+09 1.5734795e+11 1.298945e-38
1.5118785e+11 -3.2767197e+10 6.3295776e+11 1.2620307e-38
3.7389365e+10 -8.1458284e+09 1.5735143e+11 1.2805057e-38
3.7193064e+10 -8.1456492e+09 1.5734797e+11 1.2620308e-38
3.6997583e+10 -8.1456492e+09 1.5734797e+11 1.2528116e-38
3.6802101e+10 -8.1456492e+09 1.5734797e+11 1.2620666e-38
3.6606624e+10 -8.1456492e+09 1.5734797e+11 1.2620308e-38
3.6411142e+10 -8.1456492e+09 1.5734797e+11 1.2435913e-38
9.0539151e+09 -2.0364123e+09 3.9336993e+10 1.2436635e-38
2.2262262e+09 -5.0344157e+08 9.724886e+09 1.2435556e-38
130772.21 -29734.359 574373 1.243556e-38
3.5398688e-19 -8.0929438e-20 1.5632988e-18 1.2528111e-38
2.1905596e-20 -5.0357455e-21 9.7274547e-20 1.2436277e-38
5.2262453e-24 -1.2080948e-24 2.3336541e-23 1.252847e-38
1.9703391e-26 -4.5800282e-27 8.8471539e-26 1.2621386e-38
1.9593156e-26 -4.5799523e-27 8.8470079e-26 1.2343361e-38
4.8503887e-27 -1.1401873e-27 2.2024784e-26 1.2251882e-38
4.8230262e-27 -1.1401873e-27 2.2024784e-26 1.2436272e-38
4.7956638e-27 -1.1401873e-27 2.2024784e-26 1.2251523e-38
1.9073207e-26 -4.5607492e-27 8.8099135e-26 1.2251522e-38
1.9043605e-26 -4.5799523e-27 8.8470079e-26 1.2619947e-38
1.8933694e-26 -4.5799523e-27 8.8470079e-26 1.2435556e-38
4.6862914e-27 -1.140206e-27 2.2025144e-26 1.2619948e-38
4.6784683e-27 -1.1449881e-27 2.211752e-26 1.2066064e-38
1.8603657e-26 -4.5798772e-27 8.8468624e-26 0
1.8494052e-26 -4.5799523e-27 8.8470079e-26 0
1.8384143e-26 -4.5799523e-27 8.8470079e-26 0
1.8274232e-26 -4.5799523e-27 8.8470079e-26 0
1.8164322e-26 -4.5799523e-27 8.8470079e-26 0
4.5136029e-27 -1.1449881e-27 2.211752e-26 0
1.7944501e-26 -4.5799523e-27 8.8470079e-26 0
1.783459e-26 -4.5799523e-27 8.8470079e-26 0
1.772468e-26 -4.5799523e-27 8.8470079e-26 0
1.7614771e-26 -4.5799523e-27 8.8470079e-26 0
1.750486e-26 -4.5799523e-27 8.8470079e-26 0
1.739495e-26 -4.5799523e-27 8.8470079e-26 0
1.7285039e-26 -4.5799523e-27 8.8470079e-26 0
1.7175129e-26 -4.5799523e-27 8.8470079e-26 0
4.248417e-27 -1.1401874e-27 2.2024785e-26 0
1.6955029e-26 -4.5798772e-27 8.8468624e-26 0
1.6845397e-26 -4.5799523e-27 8.8470079e-26 0
6.7223891e-26 -1.8396968e-26 3.5537077e-25 0
1.6695876e-26 -4.5993179e-27 8.8844159e-26 0
1.6515667e-26 -4.5799523e-27 8.8470079e-26 0
1.6405757e-26 -4.5799523e-27 8.8470079e-26 0
1.6295846e-26 -4.5799523e-27 8.8470079e-26 0
1.6185936e-26 -4.5799523e-27 8.8470079e-26 0
1.6076025e-26 -4.5799523e-27 8.8470079e-26 0
6.3864466e-26 -1.8319809e-26 3.5388032e-25 0
4.5635751e+11 -1.3181563e+11 2.5462579e+12 0
1.1265663e+11 -3.2767199e+10 6.3295783e+11 0
2.796757e+10 -8.1917998e+09 1.5823946e+11 0
2.7614525e+10 -8.1456492e+09 1.5734797e+11 0
2.7419046e+10 -8.1456492e+09 1.5734797e+11 0
2.7223564e+10 -8.1456492e+09 1.5734797e+11 0
2.7028085e+10 -8.1456492e+09 1.5734797e+11 0
4.3421417e+11 -1.3181562e+11 2.5462576e+12 0
4.3105088e+11 -1.3181563e+11 2.5462579e+12 0
1.7213584e+12 -5.3028405e+11 1.0243397e+13 0
6.873768e+12 -2.1333138e+12 4.1208823e+13 0
1.7773499e+15 -5.5575008e+14 1.0735319e+16 0
6.811093e+12 -2.1458264e+12 4.1450524e+13 0
4.1524353e+11 -1.3181858e+11 2.5463148e+12 0
1.0243406e+11 -3.2767199e+10 6.3295783e+11 0
1.6449666e+12 -5.3027216e+11 1.0243168e+13 0
1.5583354e+09 -5.0626214e+08 9.779371e+09 0
371247.16 -121556.12 2348076.8 0
22402.969 -7393.4189 142817.28 0
84.999046 -28.275286 546.18842 0
0.079828218 -0.026768887 0.51708961 0
0.079184234 -0.026768355 0.51707923 0
0.078541845 -0.026768355 0.51707923 0
0.019376641 -0.0066583361 0.12861782 0
0.00029725311 -0.00010299351 0.0019895062 0
1.128856e-06 -3.9441031e-07 7.6187498e-06 0
6.8945518e-08 -2.4292516e-08 4.6925396e-07 0
1.7008269e-08 -6.0438601e-09 1.167481e-07 0
1.6862909e-08 -6.0437459e-09 1.1674591e-07 0
1.671787e-08 -6.0437459e-09 1.1674591e-07 0
1.6572832e-08 -6.0437459e-09 1.1674591e-07 0
1.6427792e-08 -6.0437459e-09 1.1674591e-07 0
1.6282755e-08 -6.0437459e-09 1.1674591e-07 0
6.4862235e-08 -2.4291595e-08 4.6923617e-07 0
3.3118566e+08 -1.2515741e+08 2.4176422e+09 0
3.2818992e+08 -1.2516038e+08 2.4176996e+09 0
1249492.1 -480914.81 9289741 0
306150.88 -118932.41 2297395 0
6.68544e+09 -2.8350052e+09 5.4763262e+10 0
1.9013388e+10 -8.1456481e+09 1.5734795e+11 0
7.5698094e+10 -3.2767197e+10 6.3295776e+11 0
1.8622429e+10 -8.1456497e+09 1.5734799e+11 0
1.8426948e+10 -8.1456492e+09 1.5734797e+11 0
1.8231468e+10 -8.1456492e+09 1.5734797e+11 0
1.8035986e+10 -8.1456492e+09 1.5734797e+11 0
1.7840507e+10 -8.1456492e+09 1.5734797e+11 0
1.7645027e+10 -8.1456492e+09 1.5734797e+11 0
4.3380424e+09 -2.0250481e+09 3.9117472e+10 0
66278496 -31290094 6.044249e+08 0
61934.379 -29574.299 571281.19 0
1.6753994e-19 -8.0929432e-20 1.5632987e-18 0
1.0303964e-20 -5.0356591e-21 9.7272879e-20 0
2.4430113e-24 -1.2080948e-24 2.3336541e-23 0
9.151828e-27 -4.5800282e-27 8.8471539e-26 0
9.0417665e-27 -4.5799523e-27 8.8470079e-26 0
8.8944059e-27 -4.5607492e-27 8.8099135e-26 0
2.1962392e-27 -1.1401873e-27 2.2024784e-26 0
8.675507e-27 -4.5607492e-27 8.8099135e-26 0
2.1415143e-27 -1.1401873e-27 2.2024784e-26 0
8.4922148e-27 -4.5799523e-27 8.8470079e-26 0
8.3823042e-27 -4.5799523e-27 8.8470079e-26 0
2.0594275e-27 -1.1401874e-27 2.2024785e-26 0
2.032098e-27 -1.1402059e-27 2.2025143e-26 0
8.0188104e-27 -4.5607492e-27 8.8099135e-26 0
7.942663e-27 -4.5799523e-27 8.8470079e-26 0
7.8327532e-27 -4.5799523e-27 8.8470079e-26 0
7.7228427e-27 -4.5799523e-27 8.8470079e-26 0
7.6129322e-27 -4.5799523e-27 8.8470079e-26 0
7.5030225e-27 -4.5799523e-27 8.8470079e-26 0
7.393112e-27 -4.5799523e-27 8.8470079e-26 0
7.2832014e-27 -4.5799523e-27 8.8470079e-26 0
7.1732909e-27 -4.5799523e-27 8.8470079e-26 0
7.0633812e-27 -4.5799523e-27 8.8470079e-26 0
6.9534707e-27 -4.5799523e-27 8.8470079e-26 0
6.8435602e-27 -4.5799523e-27 8.8470079e-26 0
6.7336497e-27 -4.5799523e-27 8.8470079e-26 0
6.6237399e-27 -4.5799523e-27 8.8470079e-26 0
1.6216295e-27 -1.1401874e-27 2.2024785e-26 0
6.4038137e-27 -4.5798772e-27 8.8468624e-26 0
6.2940088e-27 -4.5799523e-27 8.8470079e-26 0
2.4840577e-26 -1.8396968e-26 3.5537077e-25 0
6.099872e-27 -4.5993179e-27 8.8844159e-26 0
5.964278e-27 -4.5799523e-27 8.8470079e-26 0
5.8543675e-27 -4.5799523e-27 8.8470079e-26 0
5.7444574e-27 -4.5799523e-27 8.8470079e-26 0
5.6345469e-27 -4.5799523e-27 8.8470079e-26 0
5.5246367e-27 -4.5799523e-27 8.8470079e-26 0
5.4147262e-27 -4.5799523e-27 8.8470079e-26 0
1.5267794e+11 -1.3181563e+11 2.5462579e+12 0
3.7166875e+10 -3.2767199e+10 6.3295783e+11 0
9.0951311e+09 -8.1917998e+09 1.5823946e+11 0
8.8484106e+09 -8.1456492e+09 1.5734797e+11 0
8.65293e+09 -8.1456492e+09 1.5734797e+11 0
8.4574495e+09 -8.1456492e+09 1.5734797e+11 0
8.2619689e+09 -8.1456492e+09 1.5734797e+11 0
1.305346e+11 -1.318156e+11 2.5462574e+12 0
7.4922426e+10 -8.341313e+09 1.5735143e+11 0
7.4725294e+10 -8.3411292e+09 1.5734797e+11 0
7.4529817e+10 -8.3411292e+09 1.5734797e+11 0
7.4334331e+10 -8.3411292e+09 1.5734797e+11 0
7.4138853e+10 -8.3411292e+09 1.5734797e+11 0
7.3943376e+10 -8.3411292e+09 1.5734797e+11 0
7.374789e+10 -8.3411292e+09 1.5734797e+11 0
1.8285488e+10 -2.0736454e+09 3.9117472e+10 0
270696.16 -30779.799 580633.5 0
7.2688078e-19 -8.28716e-20 1.5632989e-18 0
4.5108505e-20 -5.1565939e-21 9.7274547e-20 0
1.0792713e-23 -1.2370868e-24 2.3336541e-23 0
4.097839e-26 -4.7096937e-27 8.8844171e-26 0
4.0695935e-26 -4.6898628e-27 8.8470079e-26 0
1.0104129e-26 -1.1675688e-27 2.2025144e-26 0
1.00766e-26 -1.1675497e-27 2.2024784e-26 0
1.0049238e-26 -1.1675497e-27 2.2024784e-26 0
4.0255631e-26 -4.6897854e-27 8.8468624e-26 0
4.0146383e-26 -4.6898628e-27 8.8470079e-26 0
4.0036472e-26 -4.6898628e-27 8.8470079e-26 0
3.9926562e-26 -4.6898628e-27 8.8470079e-26 0
3.9816651e-26 -4.6898628e-27 8.8470079e-26 0
3.9706741e-26 -4.6898628e-27 8.8470079e-26 0
3.959683e-26 -4.6898628e-27 8.8470079e-26 0
3.9486923e-26 -4.6898628e-27 8.8470079e-26 0
3.9377012e-26 -4.6898628e-27 8.8470079e-26 0
3.9267102e-26 -4.6898628e-27 8.8470079e-26 0
9.7484118e-27 -1.1675688e-27 2.2025144e-26 0
3.9047277e-26 -4.6898624e-27 8.8470073e-26 0
3.893737e-26 -4.6898628e-27 8.8470079e-26 0
3.882746e-26 -4.6898628e-27 8.8470079e-26 0
3.8717549e-26 -4.6898628e-27 8.8470079e-26 0
3.8607638e-26 -4.6898628e-27 8.8470079e-26 0
3.8497728e-26 -4.6898628e-27 8.8470079e-26 0
3.8387817e-26 -4.6898628e-27 8.8470079e-26 0
3.8277907e-26 -4.6898628e-27 8.8470079e-26 0
9.5021462e-27 -1.1675688e-27 2.2025144e-26 0
3.8058086e-26 -4.6898624e-27 8.8470073e-26 0
3.7948175e-26 -4.6898628e-27 8.8470079e-26 0
1.5199052e-25 -1.8838461e-26 3.5537077e-25 0
3.7887883e-26 -4.709693e-27 8.8844159e-26 0
3.7618447e-26 -4.6898628e-27 8.8470079e-26 0
3.7508536e-26 -4.6898628e-27 8.8470079e-26 0
3.7398626e-26 -4.6898628e-27 8.8470079e-26 0
3.7288715e-26 -4.6898628e-27 8.8470079e-26 0
3.7178805e-26 -4.6898628e-27 8.8470079e-26 0
1.4890252e-25 -1.883877e-26 3.5537661e-25 0
2.6592918e+11 -3.374474e+10 6.3656447e+11 0
2.6363614e+11 -3.3553551e+10 6.3295783e+11 0
2.6284979e+11 -3.3553551e+10 6.3295783e+11 0
6.5146757e+10 -8.3411292e+09 1.5734797e+11 0
6.4951276e+10 -8.3411292e+09 1.5734797e+11 0
2.6049071e+11 -3.3553549e+10 6.3295776e+11 0
2.5970439e+11 -3.3553551e+10 6.3295783e+11 0
1.0415733e+12 -1.3497895e+11 2.5462576e+12 0
1.0384101e+12 -1.3497896e+11 2.5462579e+12 0
4.1646243e+12 -5.4299777e+11 1.0243169e+13 0
1.6703312e+13 -2.1845093e+12 4.1208819e+13 0
1.0845117e+15 -1.4227176e+14 2.6838298e+15 0
1.6698292e+13 -2.1973222e+12 4.1450524e+13 0
1.0225935e+12 -1.3497897e+11 2.5462579e+12 0
6.2996476e+10 -8.3411302e+09 1.5734799e+11 0
1.0162441e+12 -1.3497595e+11 2.546201e+12 0
3.8694164e+09 -5.1553453e+08 9.725099e+09 0
931334.19 -124473.24 2348076.8 0
56469.191 -7570.8472 142817.28 0
216.41306 -29.106037 549.05945 0
0.20316966 -0.027411291 0.51708961 0
0.20252322 -0.027410744 0.51707923 0
0.20188083 -0.027410744 0.51707923 0
0.05030961 -0.0068526859 0.12926981 0
0.00019295258 -2.636629e-05 0.00049737655 0
2.9317503e-06 -4.0190042e-07 7.5814933e-06 0
1.8087673e-07 -2.487549e-08 4.6925396e-07 0
4.4856208e-08 -6.1889014e-09 1.167481e-07 0
4.4710326e-08 -6.1887846e-09 1.1674591e-07 0
4.4565287e-08 -6.1887846e-09 1.1674591e-07 0
4.4420247e-08 -6.1887846e-09 1.1674591e-07 0
4.4275208e-08 -6.1887846e-09 1.1674591e-07 0
4.4130172e-08 -6.1887846e-09 1.1674591e-07 0
1.767892e-07 -2.4874549e-08 4.6923617e-07 1.3448994e-38
9.0286579e+08 -1.2745507e+08 2.4043264e+09 1.3081287e-38
9.048841e+08 -1.2816399e+08 2.4176996e+09 1.308057e-38
3465374.8 -492455.81 9289740 1.3633023e-38
854148.75 -121786.56 2297395 1.3541187e-38
1.9748127e+10 -2.90304e+09 5.4763262e+10 1.3079853e-38
5.6545616e+10 -8.3411287e+09 1.5734795e+11 1.3080213e-38
2.2667759e+11 -3.3553549e+10 6.3295776e+11 1.3080209e-38
5.6155894e+10 -8.341313e+09 1.5735143e+11 1.308021e-38
5.5959179e+10 -8.3411292e+09 1.5734797e+11 1.2895819e-38
5.5763698e+10 -8.3411292e+09 1.5734797e+11 1.2988371e-38
5.5568216e+10 -8.3411292e+09 1.5734797e+11 1.3264239e-38
5.5372739e+10 -8.3411292e+09 1.5734797e+11 1.3264962e-38
5.5177257e+10 -8.3411292e+09 1.5734797e+11 1.307985e-38
1.3745444e+10 -2.0852823e+09 3.9336993e+10 1.2988375e-38
3.3860652e+09 -5.1552323e+08 9.724886e+09 1.308021e-38
199274.84 -30447.928 574373 1.3264241e-38
5.404338e-19 -8.2871594e-20 1.5632988e-18 1.3263884e-38
3.3507051e-20 -5.1565939e-21 9.7274547e-20 1.326496e-38
8.0094791e-24 -1.2370868e-24 2.3336541e-23 1.3357517e-38
3.0254954e-26 -4.6899402e-27 8.8471539e-26 1.3448634e-38
3.0144545e-26 -4.6898628e-27 8.8470079e-26 1.3079852e-38
7.4771757e-27 -1.1675497e-27 2.2024784e-26 1.3264602e-38
7.4498136e-27 -1.1675497e-27 2.2024784e-26 1.3080568e-38
7.4224508e-27 -1.1675497e-27 2.2024784e-26 1.3357156e-38
2.9580355e-26 -4.6701987e-27 8.8099135e-26 1.2896178e-38
2.9594995e-26 -4.6898628e-27 8.8470079e-26 1.2988375e-38
2.9485085e-26 -4.6898628e-27 8.8470079e-26 1.32646e-38
7.3131212e-27 -1.1675688e-27 2.2025144e-26 1.3357155e-38
7.3163159e-27 -1.1724657e-27 2.211752e-26 1.3080932e-38
2.9154872e-26 -4.6897854e-27 8.8468624e-26 1.5391946e-38
2.9045443e-26 -4.6898628e-27 8.8470079e-26 1.9632236e-38
2.8935532e-26 -4.6898628e-27 8.8470079e-26 1.8432616e-38
2.8825622e-26 -4.6898628e-27 8.8470079e-26 1.8801399e-38
2.8715711e-26 -4.6898628e-27 8.8470079e-26 1.8709925e-38
7.1514501e-27 -1.1724657e-27 2.211752e-26 1.7785469e-38
2.849589e-26 -4.6898628e-27 8.8470079e-26 0
2.8385979e-26 -4.6898628e-27 8.8470079e-26 1.3089626e-38
2.8276069e-26 -4.6898628e-27 8.8470079e-26 1.5024997e-38
2.8166158e-26 -4.6898628e-27 8.8470079e-26 1.6033413e-38
2.8056248e-26 -4.6898628e-27 8.8470079e-26 0
2.7946341e-26 -4.6898628e-27 8.8470079e-26 1.3455167e-38
2.783643e-26 -4.6898628e-27 8.8470079e-26 1.8901148e-38
2.7726519e-26 -4.6898628e-27 8.8470079e-26 1.7327711e-38
6.875204e-27 -1.1675498e-27 2.2024785e-26 1.7421011e-38
2.7506245e-26 -4.6897854e-27 8.8468624e-26 1.484168e-38
2.7396788e-26 -4.6898628e-27 8.8470079e-26 2.0556737e-38
1.0960721e-25 -1.8838461e-26 3.5537077e-25 0
2.7291879e-26 -4.709693e-27 8.8844159e-26 1.6502649e-38
2.7067056e-26 -4.6898628e-27 8.8470079e-26 1.8435871e-38
2.6957146e-26 -4.6898628e-27 8.8470079e-26 1.4648699e-38
2.6847235e-26 -4.6898628e-27 8.8470079e-26 0
2.6737325e-26 -4.6898628e-27 8.8470079e-26 1.2167318e-38
2.6627414e-26 -4.6898628e-27 8.8470079e-26 1.9729842e-38
1.0607002e-25 -1.8759451e-26 3.5388032e-25 2.0276164e-38
7.6003711e+11 -1.3497896e+11 2.5462579e+12 2.0093213e-38
1.8814638e+11 -3.3553551e+10 6.3295783e+11 2.0462716e-38
4.6840009e+10 -8.3883878e+09 1.5823946e+11 2.0830778e-38
4.6380642e+10 -8.3411292e+09 1.5734797e+11 2.0921532e-38
4.6185161e+10 -8.3411292e+09 1.5734797e+11 2.0459832e-38
4.5989679e+10 -8.3411292e+09 1.5734797e+11 2.0185049e-38
4.5794202e+10 -8.3411292e+09 1.5734797e+11 1.99081e-38
7.3789374e+11 -1.3497895e+11 2.5462576e+12 2.0000657e-38
7.3473045e+11 -1.3497896e+11 2.5462579e+12 2.0000299e-38
2.9430377e+12 -5.4300987e+11 1.0243397e+13 2.00003e-38
1.1788541e+13 -2.1845094e+12 4.1208823e+13 2.0000297e-38
3.0576984e+15 -5.6908706e+14 1.0735319e+16 2.0092496e-38
1.1754693e+13 -2.1973222e+12 4.1450524e+13 1.9907384e-38
7.1892992e+11 -1.3498198e+11 2.5463148e+12 1.9816267e-38
1.7792382e+11 -3.3553551e+10 6.3295783e+11 2.0185047e-38
2.8666186e+12 -5.4299771e+11 1.0243168e+13 2.0553467e-38
2.7246725e+09 -5.1841149e+08 9.779371e+09 2.0645665e-38
651290.69 -124473.24 2348076.8 2.0738578e-38
39436.082 -7570.8472 142817.28 2.0092493e-38
150.14023 -28.95384 546.18842 2.018541e-38
0.14149894 -0.027411291 0.51708961 1.9816269e-38
0.14085373 -0.027410744 0.51707923 2.0187212e-38
0.14021133 -0.027410744 0.51707923 1.9263465e-38
0.034716252 -0.0068181236 0.12861782 1.6591958e-38
0.00053453172 -0.00010546516 0.0019895062 1.7330592e-38
2.0375066e-06 -4.0387542e-07 7.6187498e-06 1.9819506e-38
1.2491111e-07 -2.487549e-08 4.6925396e-07 2.0000294e-38
3.0932238e-08 -6.1889014e-09 1.167481e-07 1.9909539e-38
3.0786616e-08 -6.1887846e-09 1.1674591e-07 1.9816982e-38
3.0641576e-08 -6.1887846e-09 1.1674591e-07 2.0000657e-38
3.049654e-08 -6.1887846e-09 1.1674591e-07 1.9355648e-38
3.0351501e-08 -6.1887846e-09 1.1674591e-07 1.8525171e-38
3.0206461e-08 -6.1887846e-09 1.1674591e-07 1.7972359e-38
1.2082572e-07 -2.4874549e-08 4.6923617e-07 1.7973079e-38
6.1952589e+08 -1.2816095e+08 2.4176422e+09 1.7972719e-38
6.1653696e+08 -1.2816399e+08 2.4176996e+09 1.7788687e-38
2357433.5 -492455.88 9289741 1.7788685e-38
580149.81 -121786.56 2297395 1.7789044e-38
1.3216783e+10 -2.90304e+09 5.4763262e+10 1.3172043e-38
3.7779501e+10 -8.3411287e+09 1.5734795e+11 1.3080208e-38
1.5118785e+11 -3.3553549e+10 6.3295776e+11 1.2803977e-38
3.7388546e+10 -8.3411302e+09 1.5734799e+11 1.3080919e-38
3.7193064e+10 -8.3411292e+09 1.5734797e+11 1.2988371e-38
3.6997583e+10 -8.3411292e+09 1.5734797e+11 1.2988371e-38
3.6802101e+10 -8.3411292e+09 1.5734797e+11 1.2895453e-38
3.6606624e+10 -8.3411292e+09 1.5734797e+11 1.298729e-38
3.6411142e+10 -8.3411292e+09 1.5734797e+11 1.2711425e-38
9.00339e+09 -2.0736454e+09 3.9117472e+10 1.2803981e-38
1.3836526e+08 -32040998 6.044249e+08 1.2803259e-38
130068.27 -30284.027 571281.19 1.2804339e-38
3.5398685e-19 -8.2871587e-20 1.5632987e-18 1.2618869e-38
2.1905219e-20 -5.1565054e-21 9.7272879e-20 1.2803979e-38
5.2262453e-24 -1.2370868e-24 2.3336541e-23 1.2619585e-38
1.9703391e-26 -4.6899402e-27 8.8471539e-26 1.2619948e-38
1.9593156e-26 -4.6898628e-27 8.8470079e-26 1.2251167e-38
1.9401555e-26 -4.6701987e-27 8.8099135e-26 1.2251885e-38
4.8230262e-27 -1.1675497e-27 2.2024784e-26 1.2435195e-38
1.9182655e-26 -4.6701987e-27 8.8099135e-26 1.2159329e-38
4.7683017e-27 -1.1675497e-27 2.2024784e-26 1.2250804e-38
1.9043605e-26 -4.6898628e-27 8.8470079e-26 1.215897e-38
1.8933694e-26 -4.6898628e-27 8.8470079e-26 1.197422e-38
4.6862147e-27 -1.1675498e-27 2.2024785e-26 1.1882029e-38
4.6589282e-27 -1.1675687e-27 2.2025143e-26 0
1.8525959e-26 -4.6701987e-27 8.8099135e-26 0
1.8494052e-26 -4.6898628e-27 8.8470079e-26 0
1.8384143e-26 -4.6898628e-27 8.8470079e-26 0
1.8274232e-26 -4.6898628e-27 8.8470079e-26 0
1.8164322e-26 -4.6898628e-27 8.8470079e-26 0
1.8054411e-26 -4.6898628e-27 8.8470079e-26 0
1.7944501e-26 -4.6898628e-27 8.8470079e-26 0
1.783459e-26 -4.6898628e-27 8.8470079e-26 0
1.772468e-26 -4.6898628e-27 8.8470079e-26 0
1.7614771e-26 -4.6898628e-27 8.8470079e-26 0
1.750486e-26 -4.6898628e-27 8.8470079e-26 0
1.739495e-26 -4.6898628e-27 8.8470079e-26 0
1.7285039e-26 -4.6898628e-27 8.8470079e-26 0
1.7175129e-26 -4.6898628e-27 8.8470079e-26 0
4.248417e-27 -1.1675498e-27 2.2024785e-26 0
1.6955029e-26 -4.6897854e-27 8.8468624e-26 0
1.6845397e-26 -4.6898628e-27 8.8470079e-26 0
6.7223891e-26 -1.8838461e-26 3.5537077e-25 0
1.6695876e-26 -4.709693e-27 8.8844159e-26 0
1.6515667e-26 -4.6898628e-27 8.8470079e-26 0
1.6405757e-26 -4.6898628e-27 8.8470079e-26 0
1.6295846e-26 -4.6898628e-27 8.8470079e-26 0
1.6185936e-26 -4.6898628e-27 8.8470079e-26 0
1.6076025e-26 -4.6898628e-27 8.8470079e-26 0
1.5966116e-26 -4.6898628e-27 8.8470079e-26 0
4.5635751e+11 -1.3497896e+11 2.5462579e+12 0
1.1265663e+11 -3.3553551e+10 6.3295783e+11 0
2.796757e+10 -8.3883878e+09 1.5823946e+11 0
2.7614525e+10 -8.3411292e+09 1.5734797e+11 0
2.7419046e+10 -8.3411292e+09 1.5734797e+11 0
2.7223564e+10 -8.3411292e+09 1.5734797e+11 0
2.7028085e+10 -8.3411292e+09 1.5734797e+11 0
4.3421414e+11 -1.3497894e+11 2.5462574e+12 0
4.3105088e+11 -1.3497896e+11 2.5462579e+12 0
1.7213584e+12 -5.4300987e+11 1.0243397e+13 0
6.873768e+12 -2.1845094e+12 4.1208823e+13 0
1.7877945e+15 -5.724313e+14 1.0798406e+16 0
2.7402617e+13 -8.8403398e+12 1.6676514e+14 0
1.6704926e+12 -5.4302206e+11 1.0243627e+13 0
4.0974529e+11 -1.3421718e+11 2.5318874e+12 0
6.6177902e+12 -2.1845093e+12 4.1208819e+13 0
6.2683218e+09 -2.0852829e+09 3.9337005e+10 0
1484988.6 -497892.97 9392307 0
5600.7422 -1892.7118 35704.32 0
84.997307 -28.953249 546.17725 0
0.079826638 -0.027410749 0.51707935 0
0.079184234 -0.027410744 0.51707923 0
0.078541845 -0.027410744 0.51707923 0
0.019376641 -0.0068181236 0.12861782 0
0.00029725311 -0.00010546516 0.0019895062 0
1.128856e-06 -4.0387542e-07 7.6187498e-06 0
6.9279707e-08 -2.4996067e-08 4.7152852e-07 0
1.7008269e-08 -6.1889014e-09 1.167481e-07 0
1.6862909e-08 -6.1887846e-09 1.1674591e-07 0
1.671787e-08 -6.1887846e-09 1.1674591e-07 0
1.6572832e-08 -6.1887846e-09 1.1674591e-07 0
1.6427792e-08 -6.1887846e-09 1.1674591e-07 0
1.6282755e-08 -6.1887846e-09 1.1674591e-07 0
6.4862235e-08 -2.4874549e-08 4.6923617e-07 0
3.311928e+08 -1.2816371e+08 2.4176942e+09 0
3.2818992e+08 -1.2816399e+08 2.4176996e+09 0
1242746 -489797.06 9239585 0
306150.88 -121786.56 2297395 0
2.674176e+10 -1.161216e+10 2.1905305e+11 0
1.9013388e+10 -8.3411292e+09 1.5734797e+11 0
1.8924108e+10 -8.3882025e+09 1.5823597e+11 0
1.8622429e+10 -8.3411292e+09 1.5734797e+11 0
1.8426948e+10 -8.3411292e+09 1.5734797e+11 0
1.8231468e+10 -8.3411292e+09 1.5734797e+11 0
1.8035986e+10 -8.3411292e+09 1.5734797e+11 0
1.7840507e+10 -8.3411292e+09 1.5734797e+11 0
1.7645027e+10 -8.3411292e+09 1.5734797e+11 0
2.7112173e+08 -1.2960001e+08 2.4447885e+09 0
1024296.2 -495175.34 9341041 0
15483.27 -7570.8477 142817.3 0
1.6753994e-19 -8.2871587e-20 1.5632987e-18 0
1.0303964e-20 -5.1565054e-21 9.7272879e-20 0
6.1075283e-25 -3.0927171e-25 5.8341352e-24 0
9.1516778e-27 -4.6898632e-27 8.8470091e-26 0
2.2604045e-27 -1.1724464e-27 2.2117156e-26 0
8.8944059e-27 -4.6701987e-27 8.8099135e-26 0
2.1962392e-27 -1.1675498e-27 2.2024785e-26 0
8.7118925e-27 -4.6897854e-27 8.8468624e-26 0
2.1415145e-27 -1.1675498e-27 2.2024785e-26 0
2.1230535e-27 -1.1724656e-27 2.2117518e-26 0
8.3823042e-27 -4.6898628e-27 8.8470079e-26 0
2.0594275e-27 -1.1675498e-27 2.2024785e-26 0
2.0320649e-27 -1.1675497e-27 2.2024784e-26 0
2.0047026e-27 -1.1675497e-27 2.2024784e-26 0
7.942663e-27 -4.6898628e-27 8.8470079e-26 0
7.8327532e-27 -4.6898628e-27 8.8470079e-26 0
7.7228427e-27 -4.6898628e-27 8.8470079e-26 0
7.6129322e-27 -4.6898628e-27 8.8470079e-26 0
7.5030225e-27 -4.6898628e-27 8.8470079e-26 0
7.393112e-27 -4.6898628e-27 8.8470079e-26 0
7.2832014e-27 -4.6898628e-27 8.8470079e-26 0
7.1732909e-27 -4.6898628e-27 8.8470079e-26 0
7.0633812e-27 -4.6898628e-27 8.8470079e-26 0
6.9534707e-27 -4.6898628e-27 8.8470079e-26 0
6.8435602e-27 -4.6898628e-27 8.8470079e-26 0
6.7336497e-27 -4.6898628e-27 8.8470079e-26 0
6.6237399e-27 -4.6898628e-27 8.8470079e-26 0
1.6216295e-27 -1.1675498e-27 2.2024785e-26 0
6.3770684e-27 -4.6701987e-27 8.8099135e-26 0
6.2940088e-27 -4.6898628e-27 8.8470079e-26 0
2.4840577e-26 -1.8838461e-26 3.5537077e-25 0
6.099872e-27 -4.709693e-27 8.8844159e-26 0
5.964278e-27 -4.6898628e-27 8.8470079e-26 0
5.8543675e-27 -4.6898628e-27 8.8470079e-26 0
5.7444574e-27 -4.6898628e-27 8.8470079e-26 0
5.6345469e-27 -4.6898628e-27 8.8470079e-26 0
5.5246367e-27 -4.6898628e-27 8.8470079e-26 0
5.4147262e-27 -4.6898628e-27 8.8470079e-26 0
1.5267794e+11 -1.3497896e+11 2.5462579e+12 0
3.7166875e+10 -3.3553551e+10 6.3295783e+11 0
9.0951311e+09 -8.3883878e+09 1.5823946e+11 0
8.8484106e+09 -8.3411292e+09 1.5734797e+11 0
8.65293e+09 -8.3411292e+09 1.5734797e+11 0
8.4574495e+09 -8.3411292e+09 1.5734797e+11 0
8.2619689e+09 -8.3411292e+09 1.5734797e+11 0
1.305346e+11 -1.3497894e+11 2.5462574e+12 0
7.4922426e+10 -8.5367977e+09 1.5735143e+11 0
7.4725294e+10 -8.5366098e+09 1.5734797e+11 0
7.4529817e+10 -8.5366098e+09 1.5734797e+11 0
7.4334331e+10 -8.5366098e+09 1.5734797e+11 0
7.4138853e+10 -8.5366098e+09 1.5734797e+11 0
7.3943376e+10 -8.5366098e+09 1.5734797e+11 0
1.8436973e+10 -2.1341524e+09 3.9336993e+10 0
4.5459041e+09 -5.2760486e+08 9.724886e+09 0
267777.47 -31161.496 574373 0
7.2688072e-19 -8.4813749e-20 1.5632988e-18 0
4.5108505e-20 -5.2774426e-21 9.7274547e-20 0
1.0792713e-23 -1.2660789e-24 2.3336541e-23 0
4.0806517e-26 -4.7998523e-27 8.8471539e-26 0
4.0695935e-26 -4.7997729e-27 8.8470079e-26 0
1.0103963e-26 -1.194912e-27 2.2024784e-26 0
1.00766e-26 -1.194912e-27 2.2024784e-26 0
1.0049238e-26 -1.194912e-27 2.2024784e-26 0
4.0087505e-26 -4.7796481e-27 8.8099135e-26 0
4.0146383e-26 -4.7997729e-27 8.8470079e-26 0
4.0036472e-26 -4.7997729e-27 8.8470079e-26 0
9.9399517e-27 -1.1949316e-27 2.2025144e-26 0
9.9541628e-27 -1.1999432e-27 2.211752e-26 0
3.9706087e-26 -4.799694e-27 8.8468624e-26 0
3.959683e-26 -4.7997729e-27 8.8470079e-26 0
3.9486923e-26 -4.7997729e-27 8.8470079e-26 0
3.9377012e-26 -4.7997729e-27 8.8470079e-26 0
3.9267102e-26 -4.7997729e-27 8.8470079e-26 0
9.7892978e-27 -1.1999432e-27 2.211752e-26 0
3.9047281e-26 -4.7997729e-27 8.8470079e-26 0
3.893737e-26 -4.7997729e-27 8.8470079e-26 0
3.882746e-26 -4.7997729e-27 8.8470079e-26 0
3.8717549e-26 -4.7997729e-27 8.8470079e-26 0
3.8607638e-26 -4.7997729e-27 8.8470079e-26 0
3.8497728e-26 -4.7997729e-27 8.8470079e-26 0
3.8387817e-26 -4.7997729e-27 8.8470079e-26 0
3.8277907e-26 -4.7997729e-27 8.8470079e-26 0
9.5019914e-27 -1.1949121e-27 2.2024785e-26 0
3.805746e-26 -4.799694e-27 8.8468624e-26 0
3.7948175e-26 -4.7997729e-27 8.8470079e-26 0
1.5199052e-25 -1.9279953e-26 3.5537077e-25 0
3.7887883e-26 -4.820068e-27 8.8844159e-26 0
3.7618447e-26 -4.7997729e-27 8.8470079e-26 0
3.7508536e-26 -4.7997729e-27 8.8470079e-26 0
3.7398626e-26 -4.7997729e-27 8.8470079e-26 0
3.7288715e-26 -4.7997729e-27 8.8470079e-26 0
3.7178805e-26 -4.7997729e-27 8.8470079e-26 0
1.4827558e-25 -1.9199092e-26 3.5388032e-25 0
1.0637167e+12 -1.3814229e+11 2.5462579e+12 0
2.6363614e+11 -3.4339903e+10 6.3295783e+11 0
6.5712447e+10 -8.5849759e+09 1.5823946e+11 0
6.5146757e+10 -8.5366098e+09 1.5734797e+11 0
6.4951276e+10 -8.5366098e+09 1.5734797e+11 0
6.4755794e+10 -8.5366098e+09 1.5734797e+11 0
6.4560316e+10 -8.5366098e+09 1.5734797e+11 0
1.0415733e+12 -1.3814227e+11 2.5462576e+12 0
1.0384101e+12 -1.3814229e+11 2.5462579e+12 0
4.1647171e+12 -5.5573571e+11 1.0243397e+13 0
1.6703313e+13 -2.2357051e+12 4.1208823e+13 0
4.3380469e+15 -5.8242401e+14 1.0735319e+16 0
1.6698292e+13 -2.248818e+12 4.1450524e+13 0
1.0226163e+12 -1.3814538e+11 2.5463148e+12 0
2.5341357e+11 -3.4339903e+10 6.3295783e+11 0
4.0882707e+12 -5.5572326e+11 1.0243168e+13 0
3.8910098e+09 -5.3056083e+08 9.779371e+09 0
931334.19 -127390.36 2348076.8 0
56469.191 -7748.2754 142817.28 0
215.28143 -29.632395 546.18842 0
0.20316966 -0.028053695 0.51708961 0
0.20252322 -0.028053135 0.51707923 0
0.20188083 -0.028053135 0.51707923 0
0.050055865 -0.0069779116 0.12861782 0
0.0007718103 -0.00010793682 0.0019895062 0
2.9461573e-06 -4.1334053e-07 7.6187498e-06 0
1.8087673e-07 -2.5458466e-08 4.6925396e-07 0
4.4856208e-08 -6.3339427e-09 1.167481e-07 0
4.4710326e-08 -6.3338232e-09 1.1674591e-07 0
4.4565287e-08 -6.3338232e-09 1.1674591e-07 0
4.4420247e-08 -6.3338232e-09 1.1674591e-07 0
4.4275208e-08 -6.3338232e-09 1.1674591e-07 0
4.4130172e-08 -6.3338232e-09 1.1674591e-07 0
1.767892e-07 -2.5457501e-08 4.6923617e-07 1.3080932e-38
9.0786611e+08 -1.311645e+08 2.4176422e+09 1.3080931e-38
9.048841e+08 -1.3116761e+08 2.4176996e+09 1.2988734e-38
3465375 -503996.94 9289741 1.32646e-38
854148.75 -124640.72 2297395 1.3357156e-38
1.9748127e+10 -2.9710748e+09 5.4763262e+10 1.2896176e-38
5.6545616e+10 -8.5366093e+09 1.5734795e+11 1.2988373e-38
2.2667759e+11 -3.4339899e+10 6.3295776e+11 1.3080208e-38
5.6154665e+10 -8.5366103e+09 1.5734799e+11 1.2988373e-38
5.5959179e+10 -8.5366098e+09 1.5734797e+11 1.2896175e-38
5.5763698e+10 -8.5366098e+09 1.5734797e+11 1.2988015e-38
5.5568216e+10 -8.5366098e+09 1.5734797e+11 1.2895819e-38
5.5372739e+10 -8.5366098e+09 1.5734797e+11 1.3173482e-38
5.5177257e+10 -8.5366098e+09 1.5734797e+11 1.3080208e-38
1.3668738e+10 -2.1222428e+09 3.9117472e+10 1.2988375e-38
2.1045203e+08 -32791902 6.044249e+08 1.2895818e-38
198202.14 -30993.756 571281.19 1.2896179e-38
5.4043375e-19 -8.4813743e-20 1.5632987e-18 1.2895819e-38
3.3506476e-20 -5.2773517e-21 9.7272879e-20 1.2988016e-38
8.0094791e-24 -1.2660789e-24 2.3336541e-23 1.289582e-38
3.0254954e-26 -4.7998523e-27 8.8471539e-26 1.2987656e-38
3.0144545e-26 -4.7997729e-27 8.8470079e-26 1.2803982e-38
2.9908703e-26 -4.7796481e-27 8.8099135e-26 1.2988375e-38
7.4498136e-27 -1.194912e-27 2.2024784e-26 1.2803984e-38
2.9689803e-26 -4.7796481e-27 8.8099135e-26 1.2896539e-38
7.3950887e-27 -1.194912e-27 2.2024784e-26 1.2895819e-38
2.9594995e-26 -4.7997729e-27 8.8470079e-26 1.2895818e-38
2.9485085e-26 -4.7997729e-27 8.8470079e-26 1.2988373e-38
7.3130017e-27 -1.1949121e-27 2.2024785e-26 1.3080931e-38
7.2857583e-27 -1.1949316e-27 2.2025143e-26 1.2712873e-38
2.9033107e-26 -4.7796481e-27 8.8099135e-26 1.5483783e-38
2.9045443e-26 -4.7997729e-27 8.8470079e-26 1.9171261e-38
2.8935532e-26 -4.7997729e-27 8.8470079e-26 1.7971996e-38
2.8825622e-26 -4.7997729e-27 8.8470079e-26 1.8431897e-38
2.8715711e-26 -4.7997729e-27 8.8470079e-26 1.8432976e-38
2.86058e-26 -4.7997729e-27 8.8470079e-26 1.8156394e-38
2.849589e-26 -4.7997729e-27 8.8470079e-26 1.4285284e-38
2.8385979e-26 -4.7997729e-27 8.8470079e-26 1.3920441e-38
2.8276069e-26 -4.7997729e-27 8.8470079e-26 1.9264177e-38
2.8166158e-26 -4.7997729e-27 8.8470079e-26 1.5850804e-38
2.8056248e-26 -4.7997729e-27 8.8470079e-26 0
2.7946341e-26 -4.7997729e-27 8.8470079e-26 1.5856191e-38
2.783643e-26 -4.7997729e-27 8.8470079e-26 1.8340434e-38
2.7726519e-26 -4.7997729e-27 8.8470079e-26 1.3267906e-38
6.875204e-27 -1.1949121e-27 2.2024785e-26 1.2349198e-38
2.7506245e-26 -4.799694e-27 8.8468624e-26 1.4565459e-38
2.7396788e-26 -4.7997729e-27 8.8470079e-26 1.9814151e-38
1.0960721e-25 -1.9279953e-26 3.5537077e-25 0
2.7291879e-26 -4.820068e-27 8.8844159e-26 1.502394e-38
2.7067056e-26 -4.7997729e-27 8.8470079e-26 1.677815e-38
2.6957146e-26 -4.7997729e-27 8.8470079e-26 1.3818222e-38
2.6847235e-26 -4.7997729e-27 8.8470079e-26 0
2.6737325e-26 -4.7997729e-27 8.8470079e-26 0
2.6627414e-26 -4.7997729e-27 8.8470079e-26 1.9085192e-38
2.6517504e-26 -4.7997729e-27 8.8470079e-26 1.9353491e-38
7.6003711e+11 -1.3814229e+11 2.5462579e+12 1.9447486e-38
1.8814638e+11 -3.4339903e+10 6.3295783e+11 1.9171617e-38
4.6840009e+10 -8.5849759e+09 1.5823946e+11 2.0001016e-38
4.6380642e+10 -8.5366098e+09 1.5734797e+11 2.0462712e-38
4.6185161e+10 -8.5366098e+09 1.5734797e+11 2.0275802e-38
4.5989679e+10 -8.5366098e+09 1.5734797e+11 1.9908104e-38
4.5794202e+10 -8.5366098e+09 1.5734797e+11 1.9815547e-38
7.3789368e+11 -1.3814227e+11 2.5462574e+12 1.9815909e-38
7.3473045e+11 -1.3814229e+11 2.5462579e+12 1.9631516e-38
2.9430377e+12 -5.5573571e+11 1.0243397e+13 1.9724076e-38
1.1788541e+13 -2.2357051e+12 4.1208823e+13 1.9816628e-38
3.0756672e+15 -5.8584663e+14 1.0798406e+16 2.0001738e-38
4.7291872e+13 -9.0475195e+12 1.6676514e+14 2.0185407e-38
2.8921994e+12 -5.5574816e+11 1.0243627e+13 2.0185049e-38
7.11711e+11 -1.3736265e+11 2.5318874e+12 1.9999576e-38
1.1532562e+13 -2.2357048e+12 4.1208819e+13 2.0000655e-38
1.0959852e+10 -2.134153e+09 3.9337005e+10 2.0184684e-38
2605162.8 -509561.44 9392307 2.036944e-38
9859.0205 -1937.0688 35704.32 2.0091414e-38
150.13716 -29.631788 546.17725 1.9724432e-38
0.14149614 -0.028053138 0.51707935 1.9632596e-38
0.14085373 -0.028053135 0.51707923 2.0000669e-38
0.14021133 -0.028053135 0.51707923 1.8157115e-38
0.034716252 -0.0069779116 0.12861782 1.7883044e-38
0.00053453172 -0.00010793682 0.0019895062 1.6405407e-38
2.0375066e-06 -4.1334053e-07 7.6187498e-06 1.7699011e-38
1.2551658e-07 -2.5581867e-08 4.7152852e-07 1.9354929e-38
3.0932238e-08 -6.3339427e-09 1.167481e-07 1.8986867e-38
3.0786616e-08 -6.3338232e-09 1.1674591e-07 1.9077982e-38
3.0641576e-08 -6.3338232e-09 1.1674591e-07 1.9170182e-38
3.049654e-08 -6.3338232e-09 1.1674591e-07 1.8617367e-38
3.0351501e-08 -6.3338232e-09 1.1674591e-07 1.870956e-38
3.0206461e-08 -6.3338232e-09 1.1674591e-07 1.8247861e-38
1.2082572e-07 -2.5457501e-08 4.6923617e-07 1.8525529e-38
6.1953926e+08 -1.3116732e+08 2.4176942e+09 1.8248584e-38
6.1653696e+08 -1.3116761e+08 2.4176996e+09 1.8249305e-38
2344705.8 -501275.81 9239585 1.8157466e-38
580149.81 -124640.72 2297395 1.834114e-38
5.2867133e+10 -1.1884299e+10 2.1905305e+11 1.2711426e-38
3.7779505e+10 -8.5366098e+09 1.5734797e+11 1.2895818e-38
3.7796127e+10 -8.5847859e+09 1.5823597e+11 1.2619588e-38
3.7388542e+10 -8.5366098e+09 1.5734797e+11 1.2804698e-38
3.7193064e+10 -8.5366098e+09 1.5734797e+11 1.2987653e-38
3.6997583e+10 -8.5366098e+09 1.5734797e+11 1.2803981e-38
3.6802101e+10 -8.5366098e+09 1.5734797e+11 1.2619231e-38
3.6606624e+10 -8.5366098e+09 1.5734797e+11 1.2619948e-38
3.6411142e+10 -8.5366098e+09 1.5734797e+11 1.2528111e-38
5.6269958e+08 -1.3263727e+08 2.4447885e+09 1.2528111e-38
2138356.2 -506780.12 9341041 1.2711784e-38
32516.383 -7748.2759 142817.3 1.2895458e-38
3.5398685e-19 -8.4813743e-20 1.5632987e-18 1.2527035e-38
2.1905219e-20 -5.2773517e-21 9.7272879e-20 1.2343364e-38
1.3065613e-24 -3.1651971e-25 5.8341352e-24 1.1882026e-38
1.9703069e-26 -4.7997737e-27 8.8470091e-26 1.2067135e-38
4.8982084e-27 -1.1999235e-27 2.2117156e-26 1.2066056e-38
1.9401555e-26 -4.7796481e-27 8.8099135e-26 1.1974223e-38
4.8230266e-27 -1.1949121e-27 2.2024785e-26 0
1.9263108e-26 -4.799694e-27 8.8468624e-26 1.1883103e-38
4.7683017e-27 -1.1949121e-27 2.2024785e-26 1.2066056e-38
4.7609007e-27 -1.1999431e-27 2.2117518e-26 1.2066057e-38
1.8933694e-26 -4.7997729e-27 8.8470079e-26 1.1882026e-38
4.6862147e-27 -1.1949121e-27 2.2024785e-26 1.2158973e-38
4.6588523e-27 -1.194912e-27 2.2024784e-26 0
4.6314898e-27 -1.194912e-27 2.2024784e-26 0
1.8494052e-26 -4.7997729e-27 8.8470079e-26 0
1.8384143e-26 -4.7997729e-27 8.8470079e-26 0
1.8274232e-26 -4.7997729e-27 8.8470079e-26 0
1.8164322e-26 -4.7997729e-27 8.8470079e-26 0
1.8054411e-26 -4.7997729e-27 8.8470079e-26 0
1.7944501e-26 -4.7997729e-27 8.8470079e-26 0
1.783459e-26 -4.7997729e-27 8.8470079e-26 0
1.772468e-26 -4.7997729e-27 8.8470079e-26 0
1.7614771e-26 -4.7997729e-27 8.8470079e-26 0
1.750486e-26 -4.7997729e-27 8.8470079e-26 0
1.739495e-26 -4.7997729e-27 8.8470079e-26 0
1.7285039e-26 -4.7997729e-27 8.8470079e-26 0
1.7175129e-26 -4.7997729e-27 8.8470079e-26 0
4.248417e-27 -1.1949121e-27 2.2024785e-26 0
1.6884216e-26 -4.7796481e-27 8.8099135e-26 0
1.6845397e-26 -4.7997729e-27 8.8470079e-26 0
6.7223891e-26 -1.9279953e-26 3.5537077e-25 0
1.6695876e-26 -4.820068e-27 8.8844159e-26 0
1.6515667e-26 -4.7997729e-27 8.8470079e-26 0
1.6405757e-26 -4.7997729e-27 8.8470079e-26 0
1.6295846e-26 -4.7997729e-27 8.8470079e-26 0
1.6185936e-26 -4.7997729e-27 8.8470079e-26 0
1.6076025e-26 -4.7997729e-27 8.8470079e-26 0
1.5966116e-26 -4.7997729e-27 8.8470079e-26 0
4.5635751e+11 -1.3814229e+11 2.5462579e+12 0
1.1265663e+11 -3.4339903e+10 6.3295783e+11 0
2.796757e+10 -8.5849759e+09 1.5823946e+11 0
2.7614525e+10 -8.5366098e+09 1.5734797e+11 0
2.7419046e+10 -8.5366098e+09 1.5734797e+11 0
2.7223564e+10 -8.5366098e+09 1.5734797e+11 0
2.7028085e+10 -8.5366098e+09 1.5734797e+11 0
4.3421414e+11 -1.3814227e+11 2.5462574e+12 0
4.3105088e+11 -1.3814229e+11 2.5462579e+12 0
1.7213584e+12 -5.5573571e+11 1.0243397e+13 0
6.8345308e+12 -2.2229428e+12 4.0973594e+13 0
1.7773093e+15 -5.8241072e+14 1.0735074e+16 0
6.8506537e+12 -2.2618799e+12 4.1691281e+13 0
1.6704926e+12 -5.5574816e+11 1.0243627e+13 0
4.120709e+11 -1.3814229e+11 2.5462579e+12 0
6.6179385e+12 -2.2357549e+12 4.1209746e+13 0
6.268459e+09 -2.1341998e+09 3.9337865e+10 0
1484988.8 -509561.5 9392308 0
5570.9878 -1926.778 35514.637 0
21.249327 -7.4079471 136.54431 0
0.079826638 -0.028053138 0.51707935 0
0.079184234 -0.028053135 0.51707923 0
0.078541845 -0.028053135 0.51707923 0
0.019474864 -0.0070132837 0.12926981 0
0.00029874477 -0.00010847846 0.00199949 0
1.128856e-06 -4.1334053e-07 7.6187498e-06 0
6.9279707e-08 -2.5581867e-08 4.7152852e-07 0
1.7008269e-08 -6.3339427e-09 1.167481e-07 0
1.6862909e-08 -6.3338232e-09 1.1674591e-07 0
1.671787e-08 -6.3338232e-09 1.1674591e-07 0
1.6572832e-08 -6.3338232e-09 1.1674591e-07 0
1.6427792e-08 -6.3338232e-09 1.1674591e-07 0
1.6282755e-08 -6.3338232e-09 1.1674591e-07 0
6.4862235e-08 -2.5457501e-08 4.6923617e-07 0
3.311928e+08 -1.3116732e+08 2.4176942e+09 0
3.2818992e+08 -1.3116761e+08 2.4176996e+09 0
1242746 -501275.81 9239585 0
306150.88 -124640.72 2297395 0
2.674176e+10 -1.1884299e+10 2.1905305e+11 0
1.9013388e+10 -8.5366098e+09 1.5734797e+11 0
1.8817909e+10 -8.5366098e+09 1.5734797e+11 0
1.8622429e+10 -8.5366098e+09 1.5734797e+11 0
1.8426948e+10 -8.5366098e+09 1.5734797e+11 0
1.8231468e+10 -8.5366098e+09 1.5734797e+11 0
1.8035986e+10 -8.5366098e+09 1.5734797e+11 0
4.4352369e+09 -2.1222428e+09 3.9117472e+10 0
4.3865436e+09 -2.1221964e+09 3.9116616e+10 0
2.7112173e+08 -1.3263727e+08 2.4447885e+09 0
253292.78 -125318.96 2309896.5 0
3850.2529 -1926.778 35514.637 0
1.6754282e-19 -8.4815203e-20 1.5633256e-18 0
1.0258848e-20 -5.2542448e-21 9.6846965e-20 0
6.1074247e-25 -3.1651437e-25 5.8340362e-24 0
2.2879193e-27 -1.1999433e-27 2.2117521e-26 0
2.2509639e-27 -1.194912e-27 2.2024784e-26 0
8.9317089e-27 -4.799694e-27 8.8468624e-26 0
2.2054864e-27 -1.1999432e-27 2.211752e-26 0
8.7120358e-27 -4.7997729e-27 8.8470079e-26 0
2.1415145e-27 -1.1949121e-27 2.2024785e-26 0
2.114152e-27 -1.194912e-27 2.2024784e-26 0
8.3821663e-27 -4.799694e-27 8.8468624e-26 0
2.0594273e-27 -1.194912e-27 2.2024784e-26 0
2.0320649e-27 -1.194912e-27 2.2024784e-26 0
2.0047026e-27 -1.194912e-27 2.2024784e-26 0
7.942663e-27 -4.7997726e-27 8.8470073e-26 0
7.8327532e-27 -4.7997729e-27 8.8470079e-26 0
7.7228427e-27 -4.7997729e-27 8.8470079e-26 0
7.6129322e-27 -4.7997729e-27 8.8470079e-26 0
7.5030225e-27 -4.7997729e-27 8.8470079e-26 0
7.393112e-27 -4.7997729e-27 8.8470079e-26 0
7.2832014e-27 -4.7997729e-27 8.8470079e-26 0
7.1732909e-27 -4.7997729e-27 8.8470079e-26 0
7.0633812e-27 -4.7997729e-27 8.8470079e-26 0
6.9534707e-27 -4.7997729e-27 8.8470079e-26 0
6.8435602e-27 -4.7997729e-27 8.8470079e-26 0
6.7336497e-27 -4.7997729e-27 8.8470079e-26 0
6.6237399e-27 -4.7997729e-27 8.8470079e-26 0
1.6216295e-27 -1.1949121e-27 2.2024785e-26 0
6.3770684e-27 -4.7796481e-27 8.8099135e-26 0
6.2940088e-27 -4.7997729e-27 8.8470079e-26 0
2.4840577e-26 -1.9279953e-26 3.5537077e-25 0
6.099872e-27 -4.820068e-27 8.8844159e-26 0
5.964278e-27 -4.7997729e-27 8.8470079e-26 0
5.8543675e-27 -4.7997729e-27 8.8470079e-26 0
5.7444574e-27 -4.7997729e-27 8.8470079e-26 0
5.6345469e-27 -4.7997729e-27 8.8470079e-26 0
5.5246367e-27 -4.7997729e-27 8.8470079e-26 0
5.4147262e-27 -4.7997729e-27 8.8470079e-26 0
1.5267794e+11 -1.3814229e+11 2.5462579e+12 0
3.7166879e+10 -3.4339906e+10 6.3295789e+11 0
3.6380525e+10 -3.4339903e+10 6.3295783e+11 0
8.8484106e+09 -8.5366098e+09 1.5734797e+11 0
8.65293e+09 -8.5366098e+09 1.5734797e+11 0
8.4574495e+09 -8.5366098e+09 1.5734797e+11 0
8.2619689e+09 -8.5366098e+09 1.5734797e+11 0
1.305346e+11 -1.3814227e+11 2.5462574e+12 0
7.492078e+10 -8.7320914e+09 1.5734799e+11 0
7.4725294e+10 -8.7320904e+09 1.5734797e+11 0
7.4529817e+10 -8.7320904e+09 1.5734797e+11 0
7.4334331e+10 -8.7320904e+09 1.5734797e+11 0
7.4138853e+10 -8.7320904e+09 1.5734797e+11 0
7.3943376e+10 -8.7320904e+09 1.5734797e+11 0
1.8334085e+10 -2.1708403e+09 3.9117472e+10 0
2.8253882e+08 -33542806 6.044249e+08 0
266336.03 -31703.482 571281.19 0
7.2688067e-19 -8.6755898e-20 1.5632987e-18 0
4.5107732e-20 -5.398198e-21 9.7272879e-20 0
1.0792713e-23 -1.2950709e-24 2.3336541e-23 0
4.0806517e-26 -4.9097643e-27 8.8471539e-26 0
